ply
format ascii 1.0
element vertex 1771
property float x
property float y
property float z
end_header
0.0763195 0.113514 0.160105
0.0769368 0.11353 0.159775
0.0775539 0.113547 0.159444
0.0796826 0.114898 0.160799
0.0802972 0.114914 0.160469
0.0809118 0.11493 0.16014
0.081526 0.114946 0.15981
0.0821401 0.114962 0.159481
0.0842454 0.116304 0.16083
0.0848572 0.11632 0.160502
0.086946 0.117652 0.161843
0.0875553 0.117668 0.161516
0.0881644 0.117683 0.161189
0.0887734 0.117699 0.160862
0.0908416 0.119022 0.162197
0.0914482 0.119037 0.161871
0.0920545 0.119053 0.161545
0.0941046 0.120367 0.162873
0.0947087 0.120382 0.162548
0.0953124 0.120397 0.162223
0.0959162 0.120412 0.161898
0.0979459 0.121717 0.16322
0.0985473 0.121731 0.162896
0.100561 0.123027 0.16421
0.10116 0.123042 0.163887
0.101759 0.123057 0.163565
0.103756 0.124344 0.164872
0.104352 0.124358 0.16455
0.104949 0.124373 0.164228
0.106928 0.125651 0.165529
0.107522 0.125665 0.165208
0.108116 0.125679 0.164887
0.10871 0.125694 0.164567
0.109303 0.125708 0.164246
0.111261 0.126977 0.165542
0.111852 0.126991 0.165223
0.112444 0.127005 0.164903
0.114384 0.128265 0.166192
0.114973 0.128279 0.165874
0.115562 0.128293 0.165555
0.117486 0.129545 0.166838
0.118072 0.129559 0.16652
0.118659 0.129572 0.166203
0.119245 0.129586 0.165885
0.12115 0.130829 0.167162
0.121734 0.130843 0.166846
0.122318 0.130856 0.166529
0.124206 0.132091 0.1678
0.124788 0.132105 0.167485
0.12537 0.132118 0.167169
0.125951 0.132131 0.166854
0.126532 0.132144 0.166539
0.127114 0.132158 0.166223
0.12898 0.133384 0.16749
0.130834 0.134602 0.168749
0.131411 0.134615 0.168436
0.131988 0.134628 0.168122
0.133826 0.135838 0.169375
0.134401 0.135851 0.169062
0.133717 0.134666 0.167183
0.134293 0.134679 0.16687
0.13487 0.134692 0.166557
0.135446 0.134705 0.166244
0.136021 0.134718 0.165931
0.135341 0.133527 0.164038
0.135919 0.13354 0.163724
0.136496 0.133553 0.163411
0.137073 0.133567 0.163098
0.13765 0.13358 0.162785
0.138227 0.133593 0.162471
0.138804 0.133606 0.162158
0.138131 0.132409 0.160249
0.137453 0.131205 0.158329
0.138033 0.131219 0.158015
0.137354 0.130008 0.156082
0.137935 0.130021 0.155767
0.137253 0.128803 0.153822
0.137837 0.128817 0.153506
0.138421 0.128831 0.153191
0.137738 0.127606 0.151232
0.138323 0.12762 0.150916
0.138909 0.127634 0.1506
0.138225 0.126402 0.148628
0.138812 0.126416 0.148312
0.139399 0.12643 0.147995
0.139986 0.126444 0.147678
0.140572 0.126458 0.147361
0.139892 0.12522 0.145375
0.140481 0.125234 0.145058
0.139799 0.123988 0.143059
0.140388 0.124002 0.142741
0.140978 0.124017 0.142423
0.141568 0.124031 0.142105
0.140887 0.122778 0.140091
0.140203 0.121518 0.138066
0.140796 0.121532 0.137747
0.141389 0.121547 0.137427
0.140704 0.120279 0.135388
0.141299 0.120294 0.135068
0.140611 0.119019 0.133015
0.141208 0.119034 0.132694
0.141805 0.119049 0.132374
0.141117 0.117766 0.130307
0.141715 0.117781 0.129986
0.142313 0.117797 0.129665
0.141625 0.116506 0.127584
0.142225 0.116522 0.127262
0.142825 0.116537 0.12694
0.142136 0.115239 0.124845
0.142738 0.115255 0.124522
0.143339 0.115271 0.1242
0.14394 0.115286 0.123878
0.143254 0.113981 0.121767
0.143856 0.113997 0.121444
0.14446 0.114013 0.121122
0.145062 0.114029 0.120799
0.144377 0.112715 0.118672
0.144982 0.112732 0.118349
0.144294 0.111411 0.116209
0.1449 0.111427 0.115885
0.145507 0.111443 0.115561
0.146113 0.11146 0.115237
0.145427 0.110131 0.113081
0.146035 0.110147 0.112756
0.145346 0.10881 0.110586
0.145956 0.108827 0.110261
0.146566 0.108844 0.109936
0.147175 0.108861 0.10961
0.146489 0.107516 0.107424
0.1471 0.107533 0.107098
0.146411 0.10618 0.104897
0.147024 0.106197 0.104571
0.147638 0.106214 0.104245
0.148251 0.106232 0.103918
0.148863 0.106249 0.103592
0.148178 0.104888 0.101374
0.148793 0.104905 0.101047
0.148105 0.103536 0.0988144
0.148722 0.103554 0.0984868
0.149338 0.103571 0.0981593
0.14865 0.102194 0.0959107
0.149269 0.102212 0.0955825
0.149887 0.10223 0.0952544
0.150505 0.102247 0.0949264
0.149819 0.100862 0.092661
0.150439 0.10088 0.0923322
0.14975 0.0994857 0.0900517
0.149058 0.0980825 0.0877563
0.149682 0.098101 0.0874261
0.151616 0.0995405 0.0890637
0.152237 0.0995587 0.0887346
0.151552 0.0981564 0.086436
0.150864 0.0967451 0.0841227
0.151489 0.0967638 0.0837921
0.150798 0.0953436 0.081463
0.151425 0.0953626 0.0811318
0.152052 0.0953815 0.0808005
0.15268 0.0954004 0.0804694
0.153306 0.0954193 0.0801382
0.152619 0.0939908 0.077791
0.153248 0.0940099 0.077459
0.0328773 0.0925429 0.137625
0.0540222 0.109852 0.158992
0.0546736 0.109878 0.158676
0.0553246 0.109903 0.158361
0.0559755 0.109928 0.158046
0.0566261 0.109952 0.157731
0.0588959 0.111354 0.15915
0.0595437 0.111378 0.158836
0.0601914 0.111403 0.158522
0.0624402 0.112794 0.159932
0.063085 0.112818 0.159619
0.0653156 0.114199 0.161021
0.0659576 0.114223 0.160709
0.0665994 0.114247 0.160397
0.0672411 0.114271 0.160085
0.0694485 0.115642 0.16148
0.0700875 0.115665 0.161169
0.0707261 0.115689 0.160858
0.0729134 0.11705 0.162245
0.0735494 0.117073 0.161935
0.0741851 0.117096 0.161625
0.0748205 0.11712 0.161316
0.0769854 0.11847 0.162695
0.0776182 0.118493 0.162387
0.0797659 0.119834 0.163758
0.0803959 0.119857 0.16345
0.0810258 0.11988 0.163143
0.0816555 0.119902 0.162835
0.083781 0.121233 0.164199
0.0844082 0.121256 0.163893
0.085035 0.121278 0.163586
0.0856616 0.121301 0.16328
0.0877655 0.122622 0.164637
0.0883895 0.122644 0.164332
0.0904768 0.123956 0.165681
0.0910982 0.123978 0.165376
0.0931689 0.12528 0.166717
0.0937878 0.125302 0.166414
0.0944064 0.125324 0.16611
0.0950248 0.125345 0.165807
0.0970747 0.126638 0.167141
0.0976905 0.12666 0.166838
0.0983062 0.126681 0.166536
0.0989217 0.126702 0.166234
0.099537 0.126724 0.165932
0.100152 0.126745 0.165629
0.102176 0.128028 0.166959
0.102789 0.128049 0.166657
0.103401 0.12807 0.166356
0.105407 0.129345 0.167678
0.106017 0.129365 0.167378
0.108008 0.130631 0.168693
0.108615 0.130651 0.168393
0.109222 0.130672 0.168094
0.109829 0.130692 0.167795
0.1118 0.131949 0.169102
0.112404 0.131969 0.168804
0.113009 0.131989 0.168506
0.113613 0.132009 0.168208
0.115564 0.133257 0.169509
0.116165 0.133277 0.169212
0.116767 0.133297 0.168915
0.117368 0.133316 0.168618
0.119299 0.134555 0.169913
0.119898 0.134575 0.169617
0.120497 0.134594 0.169321
0.122411 0.135824 0.17061
0.123007 0.135844 0.170314
0.123604 0.135863 0.170019
0.125501 0.137084 0.171301
0.126095 0.137104 0.171007
0.126688 0.137123 0.170712
0.127282 0.137142 0.170418
0.127875 0.137161 0.170124
0.129751 0.138373 0.171401
0.131615 0.139578 0.172669
0.132204 0.139597 0.172376
0.132792 0.139615 0.172084
0.13464 0.140812 0.173346
0.135226 0.14083 0.173054
0.135812 0.140849 0.172763
0.136398 0.140867 0.172471
0.136983 0.140886 0.17218
0.137569 0.140904 0.171889
0.138154 0.140922 0.171598
0.138739 0.140941 0.171307
0.13808 0.139783 0.169457
0.138667 0.139802 0.169165
0.139254 0.13982 0.168874
0.13984 0.139839 0.168582
0.139183 0.138675 0.166719
0.139771 0.138694 0.166428
0.140358 0.138713 0.166136
0.139701 0.137543 0.164261
0.14029 0.137562 0.163969
0.14088 0.137581 0.163677
0.140222 0.136404 0.161789
0.140813 0.136423 0.161497
0.141404 0.136442 0.161204
0.140746 0.135259 0.159305
0.141339 0.135279 0.159012
0.140679 0.134089 0.157101
0.141273 0.134109 0.156807
0.141867 0.134128 0.156514
0.142461 0.134148 0.15622
0.141802 0.132952 0.154296
0.142398 0.132972 0.154002
0.142993 0.132992 0.153708
0.143588 0.133011 0.153415
0.142932 0.131809 0.151477
0.143529 0.131829 0.151183
0.144125 0.131849 0.150889
0.143469 0.13064 0.148938
0.144067 0.13066 0.148644
0.143408 0.129444 0.146681
0.142745 0.12822 0.144707
0.143347 0.128241 0.144411
0.143949 0.128262 0.144116
0.143286 0.127031 0.142128
0.14389 0.127052 0.141832
0.144493 0.127074 0.141536
0.145096 0.127095 0.14124
0.145699 0.127116 0.140944
0.14504 0.125879 0.138942
0.145645 0.1259 0.138646
0.144984 0.124656 0.136631
0.14559 0.124677 0.136335
0.146196 0.124699 0.136038
0.145535 0.123448 0.13401
0.146143 0.12347 0.133713
0.14548 0.122211 0.131672
0.146089 0.122233 0.131374
0.146699 0.122255 0.131077
0.146035 0.120989 0.129022
0.146647 0.121012 0.128724
0.147258 0.121034 0.128426
0.146594 0.119761 0.126358
0.147207 0.119784 0.126059
0.14782 0.119806 0.125761
0.147156 0.118526 0.123678
0.147771 0.118549 0.123379
0.148385 0.118572 0.123081
0.148999 0.118594 0.122782
0.148337 0.117307 0.120685
0.148953 0.11733 0.120386
0.149569 0.117353 0.120086
0.148907 0.116058 0.117976
0.149525 0.116082 0.117676
0.148861 0.114779 0.115551
0.14948 0.114803 0.115251
0.150099 0.114826 0.114951
0.149435 0.113516 0.112812
0.150056 0.11354 0.112511
0.150677 0.113564 0.112211
0.150013 0.112247 0.110057
0.150636 0.112271 0.109756
0.151258 0.112295 0.109455
0.15188 0.112319 0.109155
0.152503 0.112343 0.108854
0.153124 0.112367 0.108553
0.152466 0.111043 0.106383
0.15309 0.111067 0.106082
0.15243 0.109735 0.103898
0.153056 0.109759 0.103597
0.153681 0.109784 0.103295
0.153021 0.108444 0.101096
0.153648 0.108469 0.100794
0.154275 0.108494 0.100492
0.153615 0.107146 0.0982779
0.154244 0.107171 0.0979754
0.153582 0.105814 0.0957466
0.154213 0.10584 0.0954437
0.154843 0.105865 0.0951408
0.154181 0.104501 0.0928969
0.154814 0.104527 0.0925936
0.15415 0.103154 0.0903347
0.154784 0.10318 0.0900308
0.154118 0.101799 0.0877569
0.154754 0.101826 0.0874526
0.15539 0.101852 0.0871483
0.156026 0.101878 0.0868441
0.155362 0.100489 0.084554
0.157298 0.101931 0.0862362
0.156638 0.100543 0.0839447
0.0524508 0.114223 0.157008
0.0531118 0.114251 0.156701
0.0537727 0.114278 0.156395
0.0544333 0.114306 0.156088
0.056749 0.115708 0.157552
0.0574067 0.115735 0.157247
0.058064 0.115763 0.156942
0.0603579 0.117154 0.158397
0.0610124 0.117181 0.158092
0.0616665 0.117208 0.157788
0.0639389 0.118589 0.159235
0.0645902 0.118616 0.158931
0.0652412 0.118643 0.158628
0.065892 0.118669 0.158325
0.0665426 0.118696 0.158022
0.0687881 0.120066 0.159462
0.0694358 0.120092 0.15916
0.071663 0.121452 0.16059
0.0723078 0.121478 0.160289
0.0729524 0.121504 0.159988
0.0751587 0.122854 0.16141
0.0758005 0.122879 0.16111
0.0764419 0.122905 0.160809
0.0770833 0.12293 0.16051
0.0792664 0.12427 0.161924
0.0799048 0.124295 0.161625
0.0820704 0.125625 0.16303
0.082706 0.12565 0.162732
0.0833415 0.125675 0.162434
0.0839767 0.1257 0.162136
0.0861196 0.12702 0.163534
0.086752 0.127044 0.163237
0.0888776 0.128355 0.164627
0.0895073 0.128379 0.16433
0.0901367 0.128403 0.164034
0.0907661 0.128428 0.163738
0.0928695 0.129728 0.165121
0.0934961 0.129752 0.164825
0.0941224 0.129776 0.16453
0.0962065 0.131067 0.165905
0.0968302 0.131091 0.165611
0.0988978 0.132373 0.166976
0.0995187 0.132396 0.166683
0.100139 0.13242 0.16639
0.10076 0.132443 0.166097
0.102806 0.133715 0.167456
0.103424 0.133738 0.167163
0.104042 0.133761 0.166871
0.104659 0.133784 0.166579
0.105276 0.133807 0.166287
0.107299 0.13507 0.16764
0.107914 0.135093 0.167349
0.109921 0.136347 0.168693
0.110533 0.136369 0.168403
0.112523 0.137615 0.169739
0.113133 0.137636 0.16945
0.113742 0.137659 0.16916
0.114351 0.137681 0.168871
0.11496 0.137703 0.168582
0.116928 0.138939 0.169912
0.117535 0.13896 0.169624
0.118141 0.138982 0.169336
0.118747 0.139004 0.169048
0.120695 0.140231 0.170372
0.121298 0.140252 0.170084
0.123231 0.141471 0.1714
0.123832 0.141492 0.171113
0.124433 0.141513 0.170827
0.126348 0.142723 0.172135
0.126946 0.142744 0.17185
0.128847 0.143946 0.17315
0.129443 0.143966 0.172866
0.130038 0.143987 0.172581
0.130633 0.144008 0.172297
0.131228 0.144028 0.172012
0.131823 0.144049 0.171728
0.132418 0.144069 0.171444
0.134293 0.145262 0.17274
0.134885 0.145282 0.172457
0.135477 0.145302 0.172173
0.137335 0.146486 0.173463
0.137925 0.146506 0.17318
0.138514 0.146526 0.172898
0.139104 0.146546 0.172615
0.139693 0.146566 0.172333
0.139026 0.145424 0.170476
0.139617 0.145444 0.170193
0.140207 0.145464 0.169911
0.13954 0.144315 0.168041
0.140132 0.144336 0.167758
0.140724 0.144356 0.167475
0.140057 0.143201 0.165594
0.140651 0.143222 0.16531
0.139981 0.14206 0.163417
0.140577 0.142081 0.163133
0.141172 0.142102 0.162849
0.140502 0.140934 0.160944
0.141099 0.140955 0.16066
0.141696 0.140977 0.160376
0.142292 0.140998 0.160092
0.141624 0.139824 0.158173
0.142222 0.139845 0.157889
0.141552 0.138664 0.155958
0.142152 0.138685 0.155673
0.14148 0.137498 0.15373
0.142081 0.13752 0.153445
0.142683 0.137542 0.15316
0.143284 0.137563 0.152875
0.142613 0.136369 0.150919
0.143216 0.136391 0.150633
0.143819 0.136414 0.150348
0.143148 0.135213 0.148379
0.143753 0.135235 0.148093
0.14308 0.134027 0.146111
0.143686 0.13405 0.145825
0.144292 0.134072 0.145539
0.144898 0.134095 0.145253
0.144227 0.132881 0.143258
0.144834 0.132904 0.142971
0.144161 0.131682 0.140963
0.14477 0.131705 0.140676
0.145379 0.131728 0.14039
0.144706 0.1305 0.138368
0.145317 0.130523 0.138081
0.145928 0.130547 0.137794
0.146538 0.13057 0.137507
0.145866 0.129335 0.135472
0.146479 0.129359 0.135184
0.145805 0.128116 0.133136
0.146419 0.12814 0.132848
0.147033 0.128164 0.13256
0.146359 0.126915 0.130498
0.146975 0.126939 0.13021
0.146299 0.125682 0.128135
0.146916 0.125707 0.127846
0.147533 0.125731 0.127558
0.14815 0.125756 0.127269
0.147476 0.124492 0.125179
0.148095 0.124517 0.12489
0.148714 0.124542 0.124602
0.148039 0.12327 0.122498
0.14866 0.123295 0.122209
0.147983 0.122017 0.120091
0.148606 0.122042 0.119802
0.147927 0.120756 0.117671
0.148551 0.120781 0.11738
0.149175 0.120807 0.11709
0.149799 0.120833 0.1168
0.149122 0.119539 0.114654
0.149748 0.119565 0.114364
0.150373 0.119591 0.114074
0.150998 0.119617 0.113783
0.150324 0.118316 0.111622
0.150951 0.118342 0.111332
0.151577 0.118369 0.111041
0.152204 0.118395 0.110751
0.151531 0.117087 0.108574
0.15216 0.117113 0.108283
0.152788 0.11714 0.107993
0.152115 0.115824 0.105802
0.152745 0.115851 0.10551
0.152071 0.114527 0.103305
0.152702 0.114554 0.103013
0.153334 0.114582 0.102722
0.152659 0.11325 0.100501
0.153293 0.113278 0.100209
0.153926 0.113305 0.0999171
0.15456 0.113332 0.0996252
0.155193 0.11336 0.0993335
0.154522 0.112021 0.0970969
0.153847 0.110674 0.0948458
0.154484 0.110702 0.0945531
0.155121 0.11073 0.0942605
0.154446 0.109375 0.0919941
0.155085 0.109403 0.091701
0.155723 0.109432 0.091408
0.155048 0.108068 0.0891259
0.155689 0.108097 0.0888326
0.156329 0.108126 0.0885393
0.156969 0.108154 0.0882461
0.156297 0.106783 0.0859479
0.156938 0.106812 0.0856541
0.156264 0.105433 0.0833404
0.0519087 0.114958 0.157404
0.0525874 0.114992 0.157116
0.0532658 0.115027 0.156829
0.0539439 0.115061 0.156542
0.0546218 0.115096 0.156255
0.0552993 0.11513 0.155968
0.0576707 0.116553 0.157497
0.0600249 0.117965 0.159015
0.0606962 0.117998 0.15873
0.0613672 0.118032 0.158445
0.0620381 0.118065 0.15816
0.064366 0.119466 0.159669
0.0666773 0.120856 0.161168
0.067342 0.120889 0.160884
0.0680064 0.120922 0.160601
0.0702951 0.122301 0.16209
0.0709562 0.122333 0.161807
0.0716172 0.122365 0.161524
0.0722779 0.122398 0.161242
0.0729384 0.12243 0.16096
0.0751992 0.123798 0.162441
0.0758564 0.12383 0.16216
0.0780983 0.125187 0.163631
0.0787525 0.125219 0.16335
0.0794064 0.12525 0.16307
0.0816266 0.126597 0.164532
0.0822776 0.126629 0.164252
0.0829281 0.12666 0.163973
0.0835784 0.126691 0.163693
0.0857746 0.128027 0.165147
0.0864219 0.128058 0.164868
0.087069 0.128088 0.16459
0.089244 0.129414 0.166035
0.0898881 0.129445 0.165757
0.0905319 0.129475 0.165479
0.0911754 0.129505 0.165202
0.0933269 0.130821 0.166639
0.0939675 0.130851 0.166362
0.0946079 0.13088 0.166086
0.0952479 0.13091 0.165809
0.0973763 0.132216 0.167238
0.0980135 0.132245 0.166962
0.0986504 0.132274 0.166687
0.100758 0.13357 0.168107
0.101393 0.133599 0.167832
0.102026 0.133628 0.167557
0.10266 0.133657 0.167283
0.104745 0.134942 0.168695
0.105376 0.134971 0.168421
0.107444 0.136247 0.169824
0.108072 0.136275 0.169551
0.110124 0.137542 0.170945
0.110749 0.13757 0.170673
0.111373 0.137598 0.170401
0.111998 0.137626 0.170129
0.114027 0.138883 0.171515
0.114649 0.138911 0.171244
0.11527 0.138938 0.170973
0.115891 0.138966 0.170702
0.116512 0.138993 0.170431
0.118518 0.14024 0.171811
0.119136 0.140267 0.17154
0.119754 0.140295 0.17127
0.120372 0.140322 0.171001
0.122356 0.141559 0.172373
0.122971 0.141586 0.172103
0.123586 0.141613 0.171834
0.1242 0.14164 0.171565
0.124814 0.141666 0.171297
0.126775 0.142894 0.172662
0.127387 0.142921 0.172394
0.129332 0.14414 0.17375
0.129941 0.144166 0.173483
0.130549 0.144192 0.173216
0.132477 0.145402 0.174565
0.133083 0.145428 0.174298
0.134994 0.14663 0.175638
0.135598 0.146655 0.175373
0.136201 0.146681 0.175107
0.136803 0.146706 0.174842
0.137406 0.146731 0.174576
0.138008 0.146757 0.174311
0.139895 0.147949 0.175645
0.139212 0.146807 0.173781
0.139814 0.146833 0.173516
0.140415 0.146858 0.173251
0.141016 0.146883 0.172986
0.140335 0.145736 0.171109
0.140938 0.145762 0.170844
0.14154 0.145787 0.170579
0.142143 0.145813 0.170314
0.142745 0.145838 0.170049
0.142067 0.144685 0.168159
0.141385 0.143525 0.166257
0.141991 0.143551 0.165992
0.142596 0.143577 0.165726
0.143202 0.143604 0.165461
0.142522 0.142437 0.163547
0.143129 0.142464 0.163281
0.142446 0.141291 0.161355
0.143055 0.141318 0.161089
0.143664 0.141345 0.160823
0.142981 0.140165 0.158884
0.143591 0.140192 0.158618
0.144201 0.140219 0.158352
0.144811 0.140246 0.158086
0.144131 0.139061 0.156134
0.144742 0.139088 0.155868
0.144059 0.137896 0.153904
0.144673 0.137923 0.153637
0.145286 0.137951 0.153371
0.144603 0.136752 0.151394
0.145218 0.13678 0.151127
0.145832 0.136808 0.15086
0.146446 0.136836 0.150593
0.145765 0.13563 0.148603
0.14508 0.134417 0.146601
0.145698 0.134446 0.146333
0.146316 0.134474 0.146066
0.145631 0.133255 0.144051
0.14625 0.133284 0.143783
0.14687 0.133312 0.143515
0.147489 0.133341 0.143248
0.146805 0.132115 0.141219
0.147426 0.132144 0.140951
0.148047 0.132173 0.140684
0.147364 0.13094 0.138641
0.147986 0.13097 0.138373
0.1473 0.12973 0.136317
0.147925 0.129759 0.136049
0.148549 0.129789 0.135781
0.149173 0.129819 0.135513
0.148489 0.128572 0.133443
0.149114 0.128602 0.133175
0.148428 0.127347 0.131092
0.149056 0.127378 0.130823
0.149683 0.127408 0.130554
0.15031 0.127439 0.130286
0.149626 0.126177 0.128189
0.150255 0.126208 0.12792
0.150884 0.126239 0.127651
0.1502 0.12497 0.12554
0.15083 0.125002 0.125271
0.15146 0.125033 0.125002
0.150776 0.123757 0.122877
0.151408 0.123788 0.122608
0.150722 0.122505 0.120468
0.151356 0.122537 0.120199
0.15199 0.122568 0.11993
0.151303 0.121278 0.117776
0.151939 0.12131 0.117507
0.152574 0.121342 0.117237
0.151888 0.120044 0.115069
0.152525 0.120076 0.114799
0.153162 0.120108 0.114529
0.153799 0.120141 0.11426
0.154435 0.120173 0.11399
0.153753 0.118868 0.111807
0.154391 0.118901 0.111537
0.153707 0.117588 0.109339
0.154347 0.117621 0.109069
0.154987 0.117654 0.108799
0.155627 0.117687 0.10853
0.154945 0.116367 0.106317
0.155586 0.1164 0.106046
0.154902 0.115072 0.103819
0.155546 0.115106 0.103548
0.156189 0.11514 0.103278
0.156832 0.115174 0.103008
0.15615 0.113838 0.100765
0.155463 0.112494 0.0985071
0.156111 0.112528 0.0982361
0.155422 0.111176 0.0959636
0.156071 0.111211 0.0956924
0.15672 0.111245 0.0954213
0.157369 0.11128 0.0951504
0.156682 0.10992 0.0928618
0.157333 0.109956 0.0925906
0.157983 0.109991 0.0923194
0.157297 0.108623 0.0900152
0.157949 0.108658 0.0897439
0.158601 0.108694 0.0894725
0.159253 0.108729 0.0892013
0.159904 0.108765 0.0889302
0.110481 0.0513178 0.00294375
0.00266457 0.091003 0.118882
0.0485413 0.122918 0.156347
0.0492147 0.122948 0.156052
0.0515019 0.124303 0.157464
0.0521722 0.124332 0.15717
0.0544411 0.125677 0.158572
0.0551084 0.125707 0.158279
0.0557755 0.125736 0.157986
0.0580231 0.127071 0.15938
0.0586872 0.1271 0.159088
0.059351 0.127129 0.158795
0.0615777 0.128454 0.160182
0.0622386 0.128483 0.15989
0.0628992 0.128512 0.159599
0.0635595 0.12854 0.159308
0.0657631 0.129855 0.160687
0.0664206 0.129883 0.160396
0.0686064 0.131189 0.161767
0.0692608 0.131217 0.161477
0.069915 0.131245 0.161188
0.070569 0.131273 0.160898
0.0712227 0.131301 0.160609
0.0733833 0.132596 0.161973
0.0740342 0.132624 0.161685
0.0761774 0.13391 0.16304
0.0768255 0.133937 0.162752
0.0774731 0.133964 0.162465
0.0795969 0.135241 0.163813
0.0802417 0.135268 0.163526
0.0808865 0.135295 0.16324
0.0815308 0.135322 0.162953
0.0836327 0.136589 0.164294
0.0842742 0.136616 0.164008
0.0849157 0.136642 0.163723
0.0869983 0.1379 0.165056
0.0876369 0.137927 0.164771
0.0882753 0.137953 0.164487
0.0889134 0.137979 0.164202
0.0909748 0.139228 0.165529
0.0916101 0.139254 0.165245
0.0936553 0.140494 0.166564
0.0942879 0.140519 0.166281
0.0949202 0.140545 0.165998
0.0969469 0.141776 0.167309
0.0975766 0.141802 0.167027
0.0982061 0.141827 0.166745
0.0988353 0.141852 0.166463
0.0994642 0.141877 0.166182
0.101468 0.143099 0.167487
0.102094 0.143124 0.167206
0.10272 0.143149 0.166925
0.103346 0.143174 0.166645
0.105329 0.144387 0.167943
0.105952 0.144411 0.167663
0.10792 0.145616 0.168954
0.108541 0.14564 0.168675
0.109161 0.145664 0.168396
0.111112 0.146861 0.16968
0.111729 0.146885 0.169402
0.112347 0.146909 0.169124
0.11428 0.148097 0.1704
0.114895 0.14812 0.170123
0.115509 0.148144 0.169846
0.116124 0.148167 0.169569
0.118037 0.149347 0.170839
0.118649 0.14937 0.170563
0.119261 0.149393 0.170286
0.119872 0.149417 0.17001
0.121766 0.150588 0.171275
0.122375 0.150611 0.170999
0.122984 0.150634 0.170724
0.123592 0.150656 0.170449
0.125468 0.151819 0.171707
0.126073 0.151842 0.171432
0.126679 0.151864 0.171158
0.127285 0.151887 0.170884
0.12789 0.15191 0.17061
0.128495 0.151932 0.170336
0.1291 0.151955 0.170062
0.13095 0.153108 0.171316
0.131552 0.153131 0.171042
0.132154 0.153153 0.170769
0.135212 0.155416 0.173528
0.135809 0.155437 0.173256
0.136407 0.155459 0.172984
0.137004 0.155481 0.172713
0.136385 0.154387 0.170928
0.136984 0.154408 0.170656
0.137582 0.15443 0.170384
0.138181 0.154452 0.170112
0.138779 0.154474 0.169841
0.139377 0.154496 0.169569
0.138763 0.153397 0.167772
0.139363 0.153419 0.1675
0.139962 0.153441 0.167228
0.140561 0.153464 0.166956
0.14116 0.153486 0.166685
0.14055 0.152382 0.164875
0.141151 0.152404 0.164604
0.141751 0.152426 0.164332
0.142351 0.152449 0.16406
0.141743 0.151339 0.162239
0.142345 0.151362 0.161967
0.142946 0.151384 0.161695
0.142338 0.150269 0.159863
0.142941 0.150292 0.159591
0.142332 0.14917 0.157748
0.142937 0.149194 0.157475
0.142326 0.148066 0.155622
0.142932 0.148089 0.155349
0.143538 0.148113 0.155076
0.142927 0.146979 0.15321
0.142313 0.145839 0.151334
0.142922 0.145863 0.151061
0.143532 0.145887 0.150787
0.144141 0.145911 0.150514
0.144749 0.145935 0.15024
0.144139 0.144789 0.148352
0.14475 0.144814 0.148078
0.144138 0.143662 0.146178
0.14475 0.143686 0.145904
0.145362 0.143711 0.14563
0.145973 0.143735 0.145356
0.145363 0.142578 0.143444
0.145977 0.142602 0.14317
0.145365 0.141438 0.141246
0.14598 0.141463 0.140972
0.146595 0.141488 0.140698
0.145984 0.140318 0.138762
0.1466 0.140344 0.138487
0.147216 0.140369 0.138212
0.146605 0.139192 0.136265
0.147223 0.139218 0.135989
0.147841 0.139243 0.135715
0.14723 0.138061 0.133755
0.147849 0.138087 0.133479
0.148468 0.138112 0.133204
0.147858 0.136923 0.131232
0.147244 0.135727 0.129248
0.147867 0.135754 0.128972
0.148489 0.13578 0.128696
0.149111 0.135807 0.12842
0.149733 0.135833 0.128145
0.149123 0.134631 0.126147
0.149747 0.134658 0.125871
0.15037 0.134684 0.125596
0.150994 0.134711 0.12532
0.150386 0.133503 0.123309
0.151011 0.13353 0.123033
0.150402 0.132315 0.12101
0.151029 0.132342 0.120734
0.150418 0.131121 0.118699
0.151046 0.131148 0.118422
0.151674 0.131176 0.118146
0.151064 0.129947 0.116097
0.151694 0.129975 0.11582
0.151082 0.12874 0.11376
0.151713 0.128768 0.113482
0.152345 0.128796 0.113205
0.152976 0.128824 0.112928
0.153607 0.128852 0.112651
0.152999 0.127611 0.110576
0.153632 0.127639 0.110299
0.154264 0.127668 0.110022
0.153657 0.12642 0.107934
0.154291 0.126448 0.107656
0.153682 0.125193 0.105555
0.153069 0.12393 0.103441
0.153707 0.123959 0.103163
0.154345 0.123989 0.102885
0.154983 0.124018 0.102607
0.154372 0.122748 0.100479
0.155012 0.122778 0.1002
0.155651 0.122808 0.0999222
0.156289 0.122837 0.0996442
0.155682 0.121561 0.0975021
0.156322 0.121591 0.0972237
0.156963 0.121621 0.0969454
0.156355 0.120338 0.0947893
0.156998 0.120368 0.0945108
0.15764 0.120398 0.0942323
0.157033 0.119108 0.0920623
0.157676 0.119138 0.0917835
0.15832 0.119169 0.0915048
0.157713 0.117871 0.0893208
0.158359 0.117902 0.0890417
0.159004 0.117933 0.0887628
0.159649 0.117964 0.088484
0.159045 0.11666 0.0862852
0.114006 0.0640144 0.00840533
0.0496425 0.132156 0.15497
0.0503208 0.132187 0.154683
0.0526231 0.133515 0.156122
0.0532984 0.133546 0.155836
0.0539733 0.133576 0.155549
0.0546479 0.133606 0.155263
0.0553223 0.133636 0.154977
0.0575972 0.134954 0.156409
0.0582685 0.134984 0.156123
0.0605246 0.136292 0.157546
0.0611929 0.136321 0.157261
0.0634308 0.13762 0.158674
0.0640959 0.137649 0.158391
0.0647608 0.137678 0.158107
0.0669776 0.138967 0.159512
0.0676395 0.138996 0.159229
0.0683011 0.139024 0.158947
0.0689624 0.139053 0.158664
0.0711559 0.140332 0.160062
0.0718141 0.14036 0.15978
0.0724722 0.140389 0.159498
0.07313 0.140417 0.159217
0.0753003 0.141686 0.160607
0.0759551 0.141714 0.160326
0.0766096 0.141742 0.160046
0.0787598 0.143002 0.161427
0.0794114 0.143029 0.161147
0.0800628 0.143057 0.160868
0.0807138 0.143084 0.160588
0.0828415 0.144334 0.161962
0.0834897 0.144362 0.161683
0.0856002 0.145603 0.163049
0.0862455 0.14563 0.162771
0.0868906 0.145657 0.162493
0.0875353 0.145683 0.162216
0.0896241 0.146915 0.163574
0.0902659 0.146942 0.163297
0.0909075 0.146968 0.16302
0.091549 0.146995 0.162743
0.0921901 0.147021 0.162467
0.0942545 0.148243 0.163819
0.0948927 0.148269 0.163543
0.0955307 0.148295 0.163267
0.0975762 0.149509 0.164611
0.0982114 0.149535 0.164336
0.100241 0.15074 0.165672
0.100873 0.150765 0.165398
0.101505 0.150791 0.165124
0.103516 0.151987 0.166452
0.104146 0.152012 0.166178
0.104775 0.152037 0.165905
0.105404 0.152062 0.165632
0.106033 0.152087 0.165359
0.10802 0.153274 0.166681
0.108646 0.153299 0.166409
0.109272 0.153324 0.166137
0.111242 0.154503 0.167451
0.111865 0.154527 0.16718
0.112488 0.154551 0.166908
0.114439 0.155722 0.168216
0.115059 0.155746 0.167945
0.115679 0.15577 0.167675
0.116299 0.155794 0.167404
0.116918 0.155818 0.167134
0.118848 0.156979 0.168435
0.120765 0.158133 0.169728
0.121379 0.158157 0.169459
0.121993 0.15818 0.16919
0.122607 0.158203 0.168921
0.123221 0.158227 0.168653
0.123834 0.15825 0.168384
0.125727 0.159395 0.169672
0.126338 0.159418 0.169404
0.128216 0.160555 0.170684
0.128824 0.160578 0.170417
0.129432 0.160601 0.17015
0.131294 0.16173 0.171422
0.131899 0.161753 0.171156
0.132504 0.161775 0.17089
0.134349 0.162897 0.172156
0.134952 0.162919 0.17189
0.135554 0.162941 0.171625
0.136157 0.162963 0.17136
0.136759 0.162985 0.171095
0.137361 0.163007 0.17083
0.137962 0.163029 0.170565
0.138563 0.163052 0.1703
0.137941 0.161977 0.1685
0.137316 0.160896 0.166689
0.137921 0.160918 0.166424
0.138525 0.160941 0.166158
0.139129 0.160964 0.165893
0.139733 0.160986 0.165628
0.139112 0.1599 0.163806
0.139717 0.159923 0.16354
0.140323 0.159946 0.163275
0.139701 0.158854 0.161441
0.140308 0.158877 0.161175
0.140915 0.1589 0.16091
0.140294 0.157803 0.159065
0.140902 0.157826 0.158799
0.140279 0.156723 0.156943
0.140889 0.156747 0.156677
0.141499 0.15677 0.156411
0.140876 0.155661 0.154544
0.140249 0.154546 0.152665
0.140862 0.15457 0.152399
0.141476 0.154594 0.152132
0.142088 0.154618 0.151865
0.142701 0.154643 0.151599
0.143314 0.154667 0.151333
0.142693 0.153546 0.149442
0.143307 0.153571 0.149175
0.142684 0.152444 0.147273
0.1433 0.152469 0.147006
0.142676 0.151336 0.145092
0.143293 0.151361 0.144825
0.14391 0.151386 0.144558
0.143286 0.150247 0.142632
0.142659 0.149101 0.140695
0.143279 0.149127 0.140427
0.1439 0.149152 0.140159
0.14452 0.149178 0.139892
0.143895 0.148026 0.137942
0.144517 0.148052 0.137674
0.145138 0.148078 0.137407
0.143258 0.14573 0.13374
0.143884 0.145756 0.133472
0.144509 0.145783 0.133203
0.145135 0.145809 0.132935
0.145759 0.145836 0.132667
0.145133 0.144665 0.130681
0.145759 0.144692 0.130412
0.145131 0.143515 0.128414
0.145759 0.143542 0.128145
0.146387 0.143569 0.127876
0.147015 0.143596 0.127608
0.146389 0.142413 0.125596
0.147018 0.142441 0.125327
0.14639 0.141251 0.123304
0.147022 0.141279 0.123035
0.147653 0.141306 0.122766
0.147025 0.14011 0.120729
0.147658 0.140138 0.12046
0.14829 0.140166 0.120191
0.148922 0.140194 0.119921
0.149554 0.140222 0.119653
0.148931 0.13902 0.117602
0.148304 0.137811 0.11554
0.14894 0.13784 0.11527
0.149575 0.137868 0.115001
0.150211 0.137897 0.114731
0.149586 0.136681 0.112655
0.150223 0.13671 0.112385
0.149596 0.135488 0.110296
0.150235 0.135517 0.110027
0.150874 0.135546 0.109757
0.150248 0.134317 0.107654
0.150888 0.134347 0.107384
0.151528 0.134376 0.107114
0.152168 0.134405 0.106844
0.151544 0.13317 0.104728
0.152186 0.1332 0.104458
0.15156 0.131957 0.102328
0.152204 0.131987 0.102058
0.151577 0.130737 0.0999152
0.152222 0.130768 0.0996444
0.152867 0.130798 0.0993738
0.153512 0.130829 0.0991033
0.152887 0.129572 0.0969464
0.153534 0.129603 0.0966756
0.15418 0.129634 0.0964049
0.153555 0.128371 0.0942339
0.154204 0.128402 0.093963
0.154852 0.128433 0.0936922
0.155499 0.128464 0.0934215
0.154877 0.127194 0.0912361
0.155527 0.127225 0.0909652
0.154903 0.125948 0.088766
0.155555 0.12598 0.0884947
0.154929 0.124695 0.0862817
0.155582 0.124727 0.0860101
0.156235 0.124759 0.0857387
0.156888 0.124791 0.0854675
0.15754 0.124823 0.0851963
0.15692 0.123532 0.082968
0.157574 0.123564 0.0826966
0.00265455 0.106671 0.11905
0.0474985 0.136086 0.154454
0.0497909 0.137394 0.155871
0.0504537 0.137418 0.15557
0.0511163 0.137443 0.155268
0.0517786 0.137468 0.154966
0.0540471 0.138766 0.156376
0.0547065 0.13879 0.156075
0.0569567 0.14008 0.157476
0.0576132 0.140104 0.157176
0.0582695 0.140128 0.156877
0.0604988 0.141407 0.158269
0.0611522 0.141431 0.15797
0.0618054 0.141454 0.157672
0.0624583 0.141478 0.157373
0.0646647 0.142748 0.158759
0.066856 0.144009 0.160134
0.0675035 0.144032 0.159837
0.0681506 0.144055 0.159541
0.0687975 0.144078 0.159244
0.0694443 0.144101 0.158947
0.0716105 0.145353 0.160317
0.0722544 0.145376 0.160021
0.0728981 0.145398 0.159726
0.0750445 0.146641 0.161088
0.0756855 0.146663 0.160793
0.0763262 0.146686 0.160498
0.078453 0.147919 0.161853
0.079091 0.147941 0.161559
0.0797287 0.147963 0.161265
0.0803661 0.147985 0.160972
0.0824714 0.14921 0.162319
0.083106 0.149231 0.162026
0.0837406 0.149253 0.161734
0.0843749 0.149275 0.161441
0.0864585 0.15049 0.162782
0.0870901 0.150512 0.16249
0.0891575 0.151719 0.163823
0.0897863 0.15174 0.163532
0.090415 0.151761 0.163241
0.0924639 0.15296 0.164566
0.0930899 0.15298 0.164276
0.0951227 0.154171 0.165593
0.095746 0.154191 0.165304
0.0963691 0.154212 0.165015
0.0969922 0.154232 0.164726
0.0976149 0.154253 0.164438
0.0996248 0.155434 0.165749
0.100245 0.155455 0.165461
0.100865 0.155475 0.165173
0.101484 0.155495 0.164885
0.102104 0.155515 0.164598
0.104091 0.156688 0.165903
0.104708 0.156708 0.165616
0.10668 0.157873 0.166914
0.107294 0.157892 0.166628
0.107908 0.157912 0.166342
0.109863 0.159069 0.167633
0.110474 0.159088 0.167348
0.111086 0.159107 0.167063
0.111697 0.159127 0.166778
0.113632 0.160275 0.168062
0.11424 0.160294 0.167778
0.114849 0.160313 0.167494
0.116766 0.161454 0.168772
0.117372 0.161473 0.168489
0.117978 0.161491 0.168205
0.119879 0.162624 0.169476
0.120482 0.162643 0.169194
0.121085 0.162661 0.168912
0.122969 0.163786 0.170176
0.12357 0.163804 0.169894
0.12417 0.163823 0.169613
0.12477 0.163841 0.169332
0.126636 0.164958 0.17059
0.127234 0.164976 0.170309
0.127831 0.164994 0.170029
0.128428 0.165012 0.169748
0.130275 0.166121 0.171
0.13087 0.166139 0.170721
0.131465 0.166157 0.170441
0.13206 0.166174 0.170162
0.133888 0.167276 0.171408
0.13448 0.167293 0.17113
0.135072 0.167311 0.170851
0.135664 0.167328 0.170573
0.136256 0.167346 0.170295
0.136847 0.167363 0.170016
0.137438 0.167381 0.169738
0.138029 0.167398 0.16946
0.137401 0.166334 0.167652
0.137994 0.166352 0.167374
0.138586 0.16637 0.167096
0.139179 0.166388 0.166818
0.138553 0.165318 0.164998
0.140362 0.166423 0.166261
0.13974 0.165354 0.164441
0.140333 0.165372 0.164162
0.140927 0.16539 0.163884
0.140304 0.164315 0.162052
0.139679 0.163235 0.16021
0.140275 0.163253 0.15993
0.140872 0.163272 0.159651
0.141468 0.16329 0.159372
0.140844 0.162204 0.157518
0.140216 0.161111 0.155653
0.140816 0.16113 0.155373
0.141415 0.161149 0.155093
0.142015 0.161168 0.154813
0.142614 0.161187 0.154534
0.14199 0.160089 0.152656
0.141362 0.158985 0.150767
0.141965 0.159004 0.150487
0.142567 0.159023 0.150206
0.14194 0.157913 0.148306
0.142544 0.157933 0.148025
0.141915 0.156817 0.146113
0.14252 0.156836 0.145832
0.143126 0.156856 0.145551
0.143731 0.156876 0.14527
0.143104 0.155754 0.143345
0.14371 0.155774 0.143063
0.143082 0.154646 0.141127
0.14369 0.154666 0.140845
0.144298 0.154686 0.140563
0.143669 0.153552 0.138614
0.144279 0.153572 0.138332
0.144889 0.153593 0.138051
0.14426 0.152452 0.136089
0.144872 0.152473 0.135807
0.145483 0.152494 0.135525
0.146094 0.152515 0.135242
0.145467 0.151368 0.133268
0.14608 0.151389 0.132986
0.145452 0.150236 0.130999
0.144819 0.149076 0.129001
0.145436 0.149098 0.128718
0.146052 0.149119 0.128434
0.14542 0.147953 0.126423
0.146038 0.147975 0.12614
0.146655 0.147997 0.125856
0.147273 0.148018 0.125572
0.14789 0.14804 0.125289
0.147262 0.146868 0.123264
0.147881 0.14689 0.12298
0.147251 0.145711 0.120943
0.147872 0.145734 0.120659
0.14724 0.144548 0.118608
0.147862 0.144571 0.118324
0.148484 0.144593 0.118039
0.149107 0.144616 0.117755
0.148477 0.143424 0.115691
0.149101 0.143447 0.115406
0.149724 0.143469 0.115122
0.149095 0.142271 0.113044
0.14972 0.142294 0.112759
0.150345 0.142317 0.112474
0.15097 0.14234 0.112189
0.150343 0.141135 0.110098
0.149712 0.139923 0.107994
0.150341 0.139947 0.107708
0.150969 0.13997 0.107423
0.151597 0.139994 0.107137
0.152225 0.140018 0.106852
0.151599 0.138799 0.104733
0.150968 0.137574 0.102602
0.1516 0.137598 0.102315
0.152231 0.137622 0.102029
0.152863 0.137646 0.101743
0.153494 0.13767 0.101457
0.152868 0.136438 0.0993105
0.1535 0.136463 0.0990241
0.152873 0.135223 0.0968639
0.153507 0.135248 0.0965772
0.154142 0.135273 0.0962906
0.153514 0.134027 0.0941162
0.15415 0.134052 0.0938292
0.153521 0.132798 0.0916411
0.154159 0.132823 0.0913536
0.154797 0.132849 0.0910663
0.155435 0.132874 0.0907791
0.154807 0.131614 0.088576
0.154176 0.130345 0.0863593
0.154818 0.130371 0.0860712
0.155459 0.130397 0.0857832
0.156101 0.130423 0.0854954
0.156741 0.130449 0.0852076
0.156115 0.129174 0.0829752
0.156758 0.1292 0.0826871
0.108796 0.0777441 0.00459337
0.109531 0.0777842 0.00428426
0.110266 0.0778243 0.00397533
0.00435883 0.134481 0.156068
0.00507814 0.134515 0.155782
0.00759006 0.135868 0.157236
0.00651586 0.134584 0.155209
0.00543493 0.133292 0.15317
0.00434732 0.131992 0.151118
0.00540036 0.117853 0.122442
0.00427496 0.116458 0.120219
0.00502324 0.116498 0.11993
0.00577128 0.116539 0.119641
0.00651884 0.116579 0.119352
0.00726604 0.116619 0.119063
0.00614417 0.115217 0.116825
0.00689375 0.115257 0.116536
0.00764287 0.115298 0.116247
0.0065192 0.113888 0.113993
0.00727075 0.113929 0.113704
0.00802195 0.11397 0.113415
0.00877261 0.114011 0.113126
0.0378079 0.136083 0.142747
0.0578026 0.151162 0.162905
0.0584748 0.151191 0.162631
0.0591468 0.15122 0.162357
0.0598185 0.151249 0.162083
0.0620212 0.152479 0.163445
0.064209 0.1537 0.164797
0.0648749 0.153728 0.164524
0.0655404 0.153756 0.164252
0.0662059 0.153785 0.16398
0.0668707 0.153813 0.163708
0.0675354 0.153841 0.163436
0.0696949 0.155052 0.164782
0.0703566 0.15508 0.164511
0.0710181 0.155108 0.16424
0.0731576 0.15631 0.165578
0.0738161 0.156338 0.165308
0.0744742 0.156365 0.165037
0.0765941 0.157559 0.166368
0.0772494 0.157586 0.166099
0.0779042 0.157613 0.165829
0.0800049 0.158798 0.167152
0.0806568 0.158825 0.166884
0.0827409 0.160002 0.168198
0.08339 0.160028 0.16793
0.0840387 0.160054 0.167663
0.0846872 0.160081 0.167395
0.0853355 0.160107 0.167127
0.0859834 0.160133 0.16686
0.0866311 0.16016 0.166593
0.0886858 0.161327 0.167902
0.0893306 0.161353 0.167636
0.0913693 0.162512 0.168937
0.0920112 0.162537 0.168671
0.092653 0.162563 0.168406
0.0946732 0.163714 0.1697
0.0953121 0.163739 0.169435
0.0959506 0.163764 0.16917
0.096589 0.163789 0.168905
0.0985885 0.164932 0.170193
0.0992241 0.164957 0.169929
0.0998593 0.164981 0.169664
0.100494 0.165006 0.169401
0.102473 0.16614 0.170681
0.103106 0.166165 0.170418
0.105069 0.167291 0.171692
0.105699 0.167315 0.171429
0.106328 0.167339 0.171167
0.106957 0.167364 0.170904
0.108901 0.168481 0.172171
0.109527 0.168505 0.171909
0.110153 0.168529 0.171648
0.112079 0.169639 0.172908
0.112703 0.169663 0.172647
0.113326 0.169686 0.172386
0.113949 0.16971 0.172126
0.115855 0.170812 0.173379
0.116476 0.170835 0.173119
0.118368 0.17193 0.174365
0.118985 0.171953 0.174106
0.119603 0.171976 0.173847
0.120219 0.171999 0.173588
0.120836 0.172021 0.173329
0.122707 0.173108 0.174569
0.123321 0.173131 0.174311
0.123935 0.173153 0.174053
0.125789 0.174232 0.175286
0.126401 0.174254 0.175029
0.127012 0.174277 0.174771
0.127622 0.174299 0.174514
0.129458 0.17537 0.175742
0.128843 0.174343 0.174
0.130674 0.175414 0.175229
0.131282 0.175436 0.174972
0.13189 0.175458 0.174716
0.133704 0.176521 0.175938
0.134309 0.176543 0.175682
0.134914 0.176565 0.175427
0.136713 0.177621 0.176642
0.138501 0.178671 0.17785
0.139101 0.178692 0.177596
0.1397 0.178713 0.177342
0.1403 0.178734 0.177087
0.140899 0.178755 0.176833
0.140322 0.177749 0.175115
0.140923 0.17777 0.17486
0.141524 0.177791 0.174606
0.142124 0.177812 0.174352
0.142724 0.177833 0.174098
0.143323 0.177855 0.173845
0.143923 0.177876 0.173591
0.143354 0.176866 0.171861
0.143955 0.176887 0.171607
0.143384 0.175872 0.169867
0.143987 0.175894 0.169613
0.144589 0.175916 0.169359
0.144019 0.174895 0.167608
0.144622 0.174917 0.167354
0.144051 0.173892 0.165594
0.144656 0.173914 0.16534
0.145261 0.173936 0.165085
0.145866 0.173958 0.164831
0.14647 0.173981 0.164577
0.147075 0.174003 0.164322
0.146509 0.172973 0.162551
0.14594 0.171938 0.16077
0.146548 0.17196 0.160515
0.145977 0.170919 0.158724
0.146586 0.170942 0.158469
0.147195 0.170965 0.158214
0.147804 0.170988 0.157959
0.147236 0.169942 0.156157
0.147846 0.169966 0.155902
0.147277 0.168914 0.15409
0.146704 0.167857 0.152267
0.147318 0.167881 0.152011
0.146744 0.166818 0.150178
0.147359 0.166842 0.149922
0.147974 0.166866 0.149667
0.1474 0.165798 0.147823
0.148017 0.165822 0.147567
0.147442 0.164749 0.145712
0.14806 0.164773 0.145456
0.148678 0.164798 0.1452
0.149296 0.164822 0.144944
0.148723 0.163743 0.143078
0.149342 0.163768 0.142822
0.149961 0.163793 0.142566
0.15058 0.163818 0.142311
0.15001 0.162734 0.140433
0.15063 0.162759 0.140177
0.15125 0.162784 0.139921
0.15068 0.161694 0.138032
0.151302 0.16172 0.137776
0.151923 0.161745 0.13752
0.151354 0.16065 0.135619
0.151977 0.160676 0.135363
0.151407 0.159575 0.133452
0.152031 0.159601 0.133195
0.15146 0.158493 0.131273
0.152086 0.15852 0.131016
0.152712 0.158546 0.13076
0.153337 0.158572 0.130503
0.152768 0.15746 0.128569
0.153395 0.157486 0.128312
0.152825 0.156368 0.126366
0.153454 0.156395 0.126109
0.154082 0.156422 0.125853
0.154711 0.156449 0.125596
0.155339 0.156476 0.12534
0.154773 0.155352 0.123381
0.154203 0.154222 0.121411
0.154835 0.154249 0.121154
0.154264 0.153113 0.119173
0.154897 0.153141 0.118916
0.15553 0.153168 0.118659
0.15496 0.152026 0.116666
0.155595 0.152054 0.116408
0.15623 0.152082 0.116151
0.156864 0.15211 0.115894
0.156296 0.150963 0.113888
0.156932 0.150991 0.113631
0.157568 0.151019 0.113374
0.157001 0.149865 0.111356
0.157638 0.149894 0.111098
0.158275 0.149923 0.110841
0.158912 0.149952 0.110584
0.158348 0.148792 0.108553
0.158986 0.148821 0.108296
0.158421 0.147655 0.106253
0.159061 0.147684 0.105996
0.159701 0.147714 0.105738
0.159136 0.146542 0.103683
0.159777 0.146571 0.103425
0.160418 0.146601 0.103168
0.159854 0.145423 0.1011
0.160497 0.145453 0.100842
0.159932 0.144268 0.0987615
0.160577 0.144298 0.0985036
0.16001 0.143106 0.0964106
0.160656 0.143137 0.0961527
0.161302 0.143168 0.0958948
0.161948 0.143198 0.095637
0.161384 0.142001 0.0935306
0.163239 0.14326 0.0951218
0.162679 0.142063 0.0930149
0.116514 0.0922027 0.016513
0.117255 0.0922502 0.0162416
0.119513 0.0938583 0.0183292
0.149294 0.100044 0.0159457
0.15001 0.100088 0.0156806
0.0523 0.152348 0.15779
0.0529683 0.152374 0.157503
0.0536364 0.152399 0.157215
0.0543041 0.152424 0.156928
0.0549715 0.15245 0.156641
0.0572298 0.153693 0.158054
0.0578943 0.153718 0.157768
0.0585585 0.153743 0.157481
0.0592224 0.153768 0.157195
0.061457 0.155001 0.158601
0.062118 0.155025 0.158315
0.0627786 0.15505 0.15803
0.0649923 0.156274 0.159427
0.06565 0.156298 0.159143
0.0663075 0.156323 0.158859
0.0669646 0.156347 0.158574
0.0691551 0.157562 0.159964
0.0698093 0.157586 0.159681
0.0704634 0.157609 0.159398
0.0726336 0.158815 0.160779
0.0732846 0.158839 0.160497
0.0739353 0.158862 0.160214
0.0745859 0.158886 0.159932
0.0767335 0.160083 0.161307
0.0788667 0.161271 0.162672
0.0795117 0.161294 0.162391
0.0801564 0.161317 0.16211
0.0808009 0.16134 0.16183
0.0814452 0.161363 0.161549
0.0835535 0.162542 0.162908
0.0841949 0.162565 0.162628
0.0862867 0.163736 0.163979
0.0869253 0.163758 0.1637
0.0875636 0.16378 0.163421
0.0882017 0.163803 0.163142
0.0902717 0.164965 0.164486
0.092328 0.166119 0.16582
0.0929607 0.166141 0.165543
0.0935934 0.166163 0.165266
0.0942256 0.166184 0.164988
0.0962608 0.16733 0.166316
0.0968904 0.167352 0.16604
0.0975197 0.167373 0.165764
0.0981487 0.167394 0.165487
0.100163 0.168532 0.166808
0.100789 0.168553 0.166533
0.101415 0.168574 0.166258
0.102041 0.168595 0.165983
0.102667 0.168616 0.165708
0.103292 0.168637 0.165433
0.105281 0.169766 0.166748
0.105904 0.169786 0.166474
0.107877 0.170907 0.167781
0.108497 0.170928 0.167508
0.109117 0.170948 0.167235
0.109737 0.170968 0.166961
0.110356 0.170989 0.166688
0.112307 0.172101 0.16799
0.112924 0.172121 0.167717
0.11354 0.172141 0.167445
0.115473 0.173246 0.168739
0.116087 0.173266 0.168468
0.116701 0.173286 0.168196
0.118617 0.174383 0.169483
0.120521 0.175473 0.170762
0.121129 0.175492 0.170492
0.121738 0.175511 0.170222
0.122346 0.17553 0.169952
0.122954 0.17555 0.169683
0.124836 0.176631 0.170956
0.125442 0.17665 0.170687
0.126047 0.176669 0.170418
0.127913 0.177744 0.171684
0.128515 0.177762 0.171416
0.129118 0.177781 0.171148
0.12972 0.1778 0.17088
0.131567 0.178866 0.17214
0.132167 0.178885 0.171872
0.132766 0.178903 0.171605
0.133366 0.178922 0.171338
0.135194 0.179981 0.172592
0.135791 0.179999 0.172326
0.136387 0.180017 0.17206
0.136984 0.180035 0.171794
0.13758 0.180053 0.171528
0.136957 0.179032 0.169739
0.137555 0.17905 0.169473
0.138152 0.179068 0.169206
0.13875 0.179087 0.16894
0.138129 0.17806 0.16714
0.138727 0.178079 0.166874
0.139326 0.178097 0.166607
0.138705 0.177065 0.164796
0.139305 0.177084 0.16453
0.139905 0.177103 0.164263
0.140505 0.177122 0.163997
0.141105 0.17714 0.16373
0.140488 0.176104 0.161907
0.141089 0.176123 0.161641
0.14169 0.176142 0.161374
0.142291 0.176161 0.161108
0.141675 0.175119 0.159273
0.142278 0.175138 0.159006
0.141661 0.174091 0.157161
0.142265 0.17411 0.156894
0.141646 0.173057 0.155037
0.142251 0.173077 0.15477
0.141631 0.172018 0.152902
0.142238 0.172037 0.152634
0.142845 0.172057 0.152367
0.142225 0.170993 0.150488
0.142834 0.171013 0.15022
0.143442 0.171033 0.149952
0.142822 0.169963 0.148061
0.143432 0.169983 0.147793
0.14281 0.168907 0.145891
0.143422 0.168928 0.145622
0.144033 0.168949 0.145354
0.144644 0.168969 0.145086
0.144025 0.167888 0.143171
0.144638 0.167909 0.142903
0.14525 0.16793 0.142634
0.144631 0.166842 0.140708
0.145245 0.166864 0.140439
0.145859 0.166885 0.140171
0.14524 0.165792 0.138232
0.144617 0.164692 0.136283
0.145235 0.164714 0.136013
0.145852 0.164736 0.135744
0.145229 0.16363 0.133782
0.145848 0.163652 0.133512
0.146467 0.163674 0.133243
0.145845 0.162563 0.131269
0.146465 0.162585 0.130999
0.145841 0.161468 0.129013
0.146463 0.16149 0.128743
0.147085 0.161513 0.128473
0.147707 0.161535 0.128203
0.147085 0.160412 0.126204
0.147709 0.160435 0.125934
0.147085 0.159305 0.123922
0.14771 0.159328 0.123652
0.148335 0.159351 0.123381
0.14896 0.159375 0.123111
0.148338 0.158239 0.121087
0.148965 0.158262 0.120816
0.149591 0.158286 0.120546
0.150217 0.158309 0.120275
0.149597 0.157168 0.118237
0.148975 0.15602 0.116187
0.149604 0.156043 0.115916
0.150234 0.156067 0.115646
0.150863 0.156091 0.115375
0.151492 0.156115 0.115104
0.15212 0.156139 0.114834
0.152749 0.156163 0.114563
0.152134 0.15501 0.112499
0.151516 0.15385 0.110421
0.150894 0.152682 0.108332
0.151528 0.152707 0.10806
0.152162 0.152732 0.107789
0.15154 0.151558 0.105686
0.152176 0.151584 0.105414
0.151553 0.150403 0.103298
0.15219 0.150429 0.103026
0.152827 0.150454 0.102754
0.153464 0.150479 0.102482
0.154101 0.150505 0.102211
0.153482 0.149318 0.10008
0.154121 0.149344 0.0998086
0.1535 0.148151 0.0976647
0.15414 0.148177 0.0973924
0.15478 0.148203 0.0971203
0.152892 0.14577 0.0930648
0.153536 0.145796 0.0927919
0.15418 0.145823 0.092519
0.154824 0.145849 0.0922464
0.155467 0.145876 0.0919738
0.154846 0.144662 0.0897885
0.155491 0.144689 0.0895157
0.154868 0.143469 0.0873167
0.155515 0.143496 0.0870435
0.156162 0.143523 0.0867705
0.156808 0.14355 0.0864975
0.156188 0.142323 0.0842837
0.156836 0.142351 0.0840104
0.157484 0.142378 0.0837374
0.0541437 0.157649 0.158503
0.0548139 0.157674 0.158221
0.057078 0.158899 0.159638
0.057745 0.158924 0.159357
0.0584117 0.15895 0.159076
0.0590781 0.158975 0.158795
0.0613183 0.16019 0.160204
0.0619816 0.160215 0.159924
0.0642037 0.161422 0.161324
0.0648639 0.161446 0.161045
0.065524 0.161471 0.160766
0.0661838 0.161495 0.160486
0.0683823 0.162693 0.161879
0.0690391 0.162717 0.1616
0.0696955 0.162741 0.161322
0.0703518 0.162765 0.161044
0.0725273 0.163953 0.162429
0.0731805 0.163977 0.162152
0.0753385 0.165157 0.163528
0.0759888 0.16518 0.163251
0.0766388 0.165204 0.162975
0.0787768 0.166375 0.164343
0.079424 0.166398 0.164068
0.0800709 0.166421 0.163792
0.0821891 0.167584 0.165152
0.0828331 0.167607 0.164877
0.0834769 0.167629 0.164603
0.0841204 0.167652 0.164328
0.0862165 0.168806 0.165681
0.0868571 0.168828 0.165407
0.0889367 0.169974 0.166752
0.0895745 0.169996 0.166479
0.090212 0.170018 0.166206
0.0908493 0.170041 0.165933
0.0914863 0.170063 0.165661
0.0935418 0.171199 0.166999
0.094176 0.171221 0.166727
0.0948099 0.171243 0.166455
0.0968466 0.172372 0.167785
0.0974778 0.172393 0.167514
0.0981087 0.172415 0.167243
0.0987394 0.172436 0.166973
0.100755 0.173556 0.168296
0.101383 0.173578 0.168026
0.102011 0.173599 0.167756
0.104008 0.174711 0.169072
0.104633 0.174732 0.168803
0.105258 0.174753 0.168534
0.107237 0.175857 0.169842
0.107859 0.175878 0.169574
0.108481 0.175898 0.169305
0.110442 0.176995 0.170606
0.111061 0.177015 0.170339
0.11168 0.177035 0.170072
0.112299 0.177056 0.169804
0.11424 0.178144 0.171099
0.114856 0.178164 0.170832
0.115472 0.178184 0.170566
0.117396 0.179265 0.171853
0.118009 0.179285 0.171587
0.118622 0.179304 0.171322
0.119235 0.179324 0.171056
0.121139 0.180397 0.172337
0.121749 0.180416 0.172072
0.122359 0.180436 0.171807
0.122968 0.180455 0.171543
0.123578 0.180475 0.171278
0.124187 0.180494 0.171014
0.124795 0.180513 0.170749
0.126674 0.181578 0.172025
0.12728 0.181597 0.171762
0.127886 0.181616 0.171498
0.128491 0.181635 0.171235
0.129097 0.181654 0.170972
0.129702 0.181673 0.170708
0.130307 0.181692 0.170445
0.132159 0.182748 0.171717
0.132762 0.182767 0.171454
0.133364 0.182785 0.171192
0.133966 0.182804 0.17093
0.134568 0.182823 0.170668
0.13517 0.182842 0.170406
0.135771 0.18286 0.170144
0.136372 0.182879 0.169882
0.135742 0.181863 0.168082
0.136345 0.181882 0.16782
0.135713 0.18086 0.166009
0.136317 0.180879 0.165747
0.136921 0.180898 0.165485
0.137525 0.180918 0.165223
0.138129 0.180937 0.164961
0.138732 0.180956 0.164699
